ply
format ascii 1.0
element vertex 2104
property float x
property float y
property float z
end_header
-1105.11 344.27 -145.74
-1011.56 331.66 -140.40
-1006.41 331.06 -140.15
-995.44 330.34 -139.85
-990.84 329.18 -139.35
-978.51 326.53 -138.23
-974.80 325.66 -137.86
-962.85 324.19 -137.24
-952.08 322.74 -136.63
-940.74 321.44 -136.08
-934.54 321.15 -135.95
-756.81 366.20 -155.02
-755.53 366.17 -155.01
-754.20 366.12 -154.99
259.83 318.16 -134.69
265.67 320.09 -135.50
293.75 325.19 -137.66
296.12 325.40 -137.75
297.26 325.47 -137.78
312.94 319.33 -135.18
331.96 307.37 -130.12
334.96 309.19 -130.89
335.42 308.67 -130.67
447.11 349.31 -147.87
448.60 349.56 -147.98
458.06 322.58 -136.56
483.66 321.73 -136.20
489.50 310.47 -131.43
-1106.74 344.78 -144.81
-1009.30 331.28 -139.14
-1006.31 331.02 -139.03
-995.86 330.48 -138.80
-978.50 326.53 -137.14
-962.80 324.18 -136.15
-951.61 322.58 -135.48
-940.03 321.19 -134.90
-933.71 320.86 -134.76
-760.35 365.55 -153.53
-759.58 365.77 -153.62
-759.06 366.11 -153.76
-758.17 366.27 -153.83
-754.42 366.22 -153.81
259.94 318.30 -133.69
264.35 319.78 -134.31
292.66 325.17 -136.57
296.03 325.30 -136.63
314.45 320.87 -134.77
335.18 308.45 -129.55
450.31 350.89 -147.38
456.02 321.90 -135.20
457.54 322.21 -135.33
484.01 321.25 -134.92
490.18 310.89 -130.58
490.19 310.25 -130.30
-1106.11 344.58 -143.58
-1008.73 331.09 -137.95
-1004.22 330.70 -137.79
-996.00 330.53 -137.72
-974.36 325.51 -135.63
-962.33 324.02 -135.01
-951.06 322.39 -134.33
-939.22 320.92 -133.72
-933.17 320.68 -133.62
-771.68 365.72 -152.38
-769.79 365.41 -152.25
-767.86 365.07 -152.11
-766.70 365.09 -152.12
-765.36 365.04 -152.10
-763.76 364.85 -152.02
-762.87 365.01 -152.09
-762.42 365.37 -152.24
-761.65 365.59 -152.33
-757.19 366.38 -152.66
-754.59 366.31 -152.63
-753.29 366.27 -152.61
258.77 318.16 -132.56
260.01 318.38 -132.66
264.43 319.87 -133.28
292.81 325.35 -135.56
296.01 325.29 -135.54
315.22 321.65 -134.02
334.88 308.17 -128.40
335.34 307.65 -128.19
451.87 352.11 -146.71
447.00 319.29 -133.04
448.74 319.77 -133.24
452.22 320.72 -133.63
453.94 321.18 -133.83
455.59 321.59 -134.00
483.53 320.93 -133.72
484.05 320.56 -133.57
489.79 309.99 -129.16
489.55 309.19 -128.83
-1103.59 343.80 -142.10
-1008.57 331.04 -136.83
-1004.26 330.71 -136.69
-996.28 330.62 -136.66
-974.85 325.67 -134.61
-962.54 324.09 -133.96
-951.28 322.47 -133.29
-939.16 320.90 -132.64
-933.29 320.72 -132.56
-781.61 362.98 -150.03
-780.80 363.16 -150.11
-780.13 363.41 -150.21
-779.35 363.62 -150.30
-778.78 363.92 -150.42
-778.82 364.50 -150.66
-779.16 365.23 -150.96
-779.91 366.15 -151.34
-780.89 367.19 -151.77
-780.75 367.70 -151.98
-778.10 367.03 -151.70
-775.44 366.35 -151.42
-773.54 366.03 -151.29
-757.39 366.48 -151.48
-753.50 366.37 -151.43
259.10 318.57 -131.67
263.02 319.46 -132.04
292.95 325.50 -134.54
296.04 325.32 -134.46
297.10 325.29 -134.45
302.12 324.86 -134.28
315.62 322.06 -133.12
335.29 307.61 -127.14
335.80 307.13 -126.95
452.30 352.44 -145.68
441.05 317.30 -131.15
442.75 317.77 -131.34
444.49 318.25 -131.54
449.80 319.76 -132.17
483.68 320.32 -132.40
484.15 319.93 -132.24
484.60 319.52 -132.07
489.11 308.91 -127.68
573.31 328.86 -135.93
-1098.25 342.49 -140.42
-1008.44 331.00 -135.71
-1004.60 330.82 -135.64
-997.02 330.87 -135.66
-976.30 326.16 -133.72
-963.54 324.43 -133.01
-952.05 322.73 -132.32
-939.59 321.05 -131.63
-932.38 320.77 -131.52
-805.51 363.93 -149.21
-805.03 364.27 -149.35
-805.09 364.85 -149.59
-805.42 365.55 -149.87
-804.39 365.63 -149.91
-800.11 364.24 -149.34
-796.68 363.23 -148.92
-794.26 362.68 -148.70
-791.43 361.93 -148.39
-789.92 361.80 -148.34
-789.86 362.32 -148.55
-790.00 362.94 -148.81
-789.74 363.38 -148.99
-789.08 363.63 -149.09
-788.26 363.81 -149.16
-787.25 363.91 -149.20
-785.88 363.83 -149.17
-783.90 363.48 -149.03
-761.11 365.92 -150.03
-760.09 366.02 -150.07
-757.61 366.58 -150.30
-753.78 366.50 -150.27
-752.59 366.52 -150.27
-751.51 366.59 -150.30
258.05 318.58 -130.62
259.24 318.74 -130.68
263.17 319.64 -131.05
273.01 323.73 -132.73
293.11 325.67 -133.53
294.06 325.52 -133.46
298.19 325.29 -133.37
299.18 325.20 -133.33
302.11 324.85 -133.19
316.03 322.48 -132.22
335.68 307.02 -125.88
452.02 351.31 -144.04
435.32 315.45 -129.34
437.45 316.23 -129.65
438.78 316.43 -129.73
481.79 321.19 -131.69
482.46 320.93 -131.58
483.07 320.62 -131.45
484.90 319.01 -130.80
485.29 318.57 -130.62
485.66 318.12 -130.43
486.05 317.68 -130.25
486.33 317.17 -130.04
489.62 309.23 -126.79
490.03 308.84 -126.63
573.92 329.21 -134.98
-1095.28 341.56 -138.90
-1010.03 331.16 -134.67
-1005.43 331.10 -134.65
-997.92 331.17 -134.67
-994.28 330.32 -134.33
-977.90 326.69 -132.85
-964.92 324.89 -132.12
-952.99 323.05 -131.37
-940.26 321.27 -130.65
-932.59 320.85 -130.48
-822.70 360.83 -146.74
-820.60 360.44 -146.58
-818.90 360.22 -146.49
-819.09 360.83 -146.74
-821.84 362.58 -147.45
-825.92 364.91 -148.40
-829.36 366.97 -149.24
-830.32 367.94 -149.63
-827.94 367.43 -149.42
-823.95 366.20 -148.92
-820.68 365.29 -148.55
-818.46 364.84 -148.37
-817.32 364.88 -148.38
-816.75 365.17 -148.50
-815.82 365.29 -148.55
-814.46 365.23 -148.53
-813.04 365.14 -148.49
-811.11 364.82 -148.36
-808.61 364.24 -148.12
-806.31 363.75 -147.92
-765.07 365.48 -148.63
-764.11 365.60 -148.68
-763.55 365.92 -148.81
-762.72 366.10 -148.88
-761.52 366.12 -148.89
-758.83 366.59 -149.08
-755.36 366.68 -149.12
-751.83 366.75 -149.14
-750.86 366.87 -149.19
257.88 318.36 -129.47
261.68 319.13 -129.78
274.83 324.60 -132.01
295.31 325.70 -132.45
296.28 325.58 -132.40
301.21 325.04 -132.18
302.15 324.90 -132.12
316.36 322.81 -131.28
335.74 307.08 -124.88
336.09 306.46 -124.63
452.13 351.40 -142.90
415.06 305.19 -124.11
421.62 308.50 -125.46
431.90 313.73 -127.58
445.25 318.04 -129.34
454.09 320.53 -130.35
455.67 320.90 -130.50
466.49 322.46 -131.13
467.64 322.51 -131.15
468.66 322.47 -131.14
469.46 322.28 -131.06
470.28 322.11 -130.99
471.15 321.97 -130.93
472.06 321.86 -130.89
473.12 321.85 -130.89
474.33 321.94 -130.92
475.64 322.10 -130.99
476.82 322.17 -131.02
477.83 322.13 -131.00
478.72 322.01 -130.95
479.53 321.83 -130.88
480.27 321.61 -130.79
480.99 321.38 -130.69
486.51 316.60 -128.75
486.53 315.93 -128.48
486.32 315.11 -128.15
486.01 314.23 -127.79
485.99 313.54 -127.51
486.35 313.10 -127.33
492.70 310.53 -126.28
493.66 310.48 -126.26
575.65 329.57 -134.03
-1094.61 341.35 -137.68
-1010.96 331.46 -133.69
-1006.71 331.52 -133.71
-999.01 331.53 -133.72
-975.79 326.35 -131.63
-965.71 325.16 -131.15
-953.31 323.16 -130.34
-939.46 321.37 -129.62
-932.70 320.88 -129.42
-780.56 334.05 -134.73
-779.55 334.09 -134.75
-777.96 333.89 -134.67
-778.87 334.76 -135.02
-781.88 336.53 -135.74
-786.46 338.99 -136.73
-792.45 342.07 -137.97
-800.21 345.91 -139.52
-806.30 349.05 -140.78
-806.16 349.49 -140.96
-805.83 349.85 -141.11
-807.07 350.90 -141.53
-811.01 353.13 -142.43
-815.36 355.53 -143.40
-819.38 357.81 -144.32
-822.19 359.56 -145.02
-823.19 360.52 -145.41
-773.12 366.99 -148.02
-771.31 366.71 -147.90
-769.46 366.41 -147.79
-767.30 365.96 -147.61
-758.94 366.64 -147.88
-756.82 366.79 -147.94
-755.63 366.81 -147.95
-751.10 366.99 -148.02
257.86 318.34 -128.40
261.57 318.99 -128.66
276.37 325.15 -131.14
298.29 325.41 -131.25
299.23 325.25 -131.19
302.89 324.53 -130.89
303.90 324.45 -130.86
316.59 323.05 -130.30
336.79 307.10 -123.86
453.71 352.62 -142.22
453.87 351.84 -141.91
414.99 305.14 -123.07
417.15 305.97 -123.41
423.62 309.21 -124.72
438.98 316.57 -127.68
440.01 316.55 -127.68
441.61 316.94 -127.83
443.39 317.47 -128.04
456.72 320.88 -129.42
458.06 321.07 -129.50
459.32 321.21 -129.55
461.79 321.43 -129.64
463.05 321.56 -129.70
464.34 321.71 -129.76
487.16 313.62 -126.49
487.81 313.37 -126.39
497.07 312.63 -126.09
498.28 312.73 -126.13
576.40 330.00 -133.10
-1095.85 341.74 -136.70
-1012.17 331.86 -132.74
-1010.41 332.01 -132.80
-1008.04 331.96 -132.78
-997.04 331.24 -132.50
-976.10 326.45 -130.58
-961.56 324.12 -129.65
-953.77 322.95 -129.18
-952.73 322.96 -129.18
-938.89 321.17 -128.47
-932.27 320.73 -128.29
-837.78 341.02 -136.41
-836.05 340.78 -136.31
-834.68 340.69 -136.27
-833.14 340.99 -136.39
-834.71 342.09 -136.84
-836.57 343.33 -137.33
-837.53 344.19 -137.68
-838.28 344.97 -137.99
-837.95 345.31 -138.12
-837.30 345.51 -138.21
-836.65 345.72 -138.29
-835.42 345.69 -138.28
-834.12 345.63 -138.25
-825.43 345.85 -138.34
-823.39 345.48 -138.19
-821.40 345.13 -138.05
-821.43 345.62 -138.25
-820.74 345.82 -138.33
-814.17 343.53 -137.41
-802.97 339.28 -135.71
-794.94 336.36 -134.55
-792.50 335.80 -134.32
-790.92 335.61 -134.24
-789.23 335.37 -134.15
-788.70 335.62 -134.25
-790.14 336.71 -134.68
-791.69 337.85 -135.14
-791.42 338.21 -135.28
-782.95 369.31 -147.73
-779.92 368.46 -147.39
-777.96 368.12 -147.25
-775.97 367.76 -147.10
-759.04 366.68 -146.67
-751.27 367.07 -146.83
261.59 319.01 -127.61
276.20 324.94 -129.97
299.84 324.73 -129.89
300.90 324.71 -129.89
305.05 324.52 -129.81
306.64 325.06 -130.03
314.36 322.98 -129.19
316.72 323.19 -129.27
338.54 308.70 -123.48
338.97 308.16 -123.26
455.37 353.00 -141.20
455.52 352.21 -140.88
413.96 307.40 -122.96
409.66 303.45 -121.38
409.55 302.62 -121.05
412.66 304.17 -121.67
425.81 310.05 -124.02
429.92 312.29 -124.92
433.95 314.46 -125.78
437.16 316.02 -126.41
459.81 320.80 -128.32
460.94 320.84 -128.34
489.07 314.18 -125.67
489.95 314.07 -125.63
490.84 313.97 -125.59
491.83 313.94 -125.57
500.72 314.26 -125.70
576.95 330.32 -132.13
-1100.50 343.19 -136.13
-1012.76 332.05 -131.71
-1011.00 332.20 -131.77
-1008.64 332.15 -131.75
-997.92 331.53 -131.51
-976.63 326.63 -129.56
-961.50 324.10 -128.56
-952.82 322.26 -127.83
-952.06 322.73 -128.02
-937.73 320.77 -127.24
-931.55 320.49 -127.13
-874.06 340.54 -135.08
-867.47 338.42 -134.24
-865.79 338.20 -134.15
-868.55 339.72 -134.76
-872.45 341.69 -135.54
-875.06 343.16 -136.12
-877.04 344.39 -136.61
-880.49 346.19 -137.32
-881.93 347.21 -137.73
-877.84 346.06 -137.27
-873.75 344.90 -136.81
-871.50 344.47 -136.64
-870.61 344.57 -136.68
-869.93 344.75 -136.75
-869.12 344.89 -136.81
-868.14 344.95 -136.83
-866.92 344.93 -136.82
-865.45 344.80 -136.77
-863.48 344.47 -136.64
-861.22 344.03 -136.47
-859.37 343.75 -136.35
-857.92 343.63 -136.31
-856.62 343.57 -136.28
-855.36 343.52 -136.26
-854.31 343.56 -136.28
-853.29 343.61 -136.30
-851.91 343.51 -136.26
-849.18 342.87 -136.01
-843.25 340.94 -135.24
-837.10 338.91 -134.43
-836.15 338.98 -134.46
-837.44 339.96 -134.85
-838.64 340.91 -135.23
-834.05 340.89 -135.22
-832.76 345.54 -137.06
-832.35 345.85 -137.19
-831.83 346.12 -137.29
-831.37 346.40 -137.41
-831.29 346.85 -137.59
-829.76 346.70 -137.52
-827.34 346.17 -137.31
-790.28 364.19 -144.46
-789.84 364.54 -144.60
-788.95 364.69 -144.66
-787.30 364.49 -144.58
-785.40 364.17 -144.46
-784.03 364.10 -144.43
-783.24 364.30 -144.50
-782.52 364.53 -144.60
-781.96 364.83 -144.72
-781.91 365.38 -144.93
-782.02 366.00 -145.18
-782.21 366.66 -145.44
-783.26 367.73 -145.86
-785.08 369.16 -146.43
-785.99 370.17 -146.83
-758.05 366.80 -145.50
-750.41 367.25 -145.68
261.74 319.20 -126.61
275.95 324.65 -128.78
277.33 325.00 -128.92
300.80 324.61 -128.76
301.72 324.43 -128.69
302.53 324.14 -128.58
307.79 325.13 -128.97
311.18 323.02 -128.13
312.22 322.99 -128.12
313.28 322.97 -128.11
317.91 323.30 -128.24
319.11 323.42 -128.29
341.80 310.72 -123.25
456.17 352.71 -139.91
429.49 321.31 -127.45
422.80 315.52 -125.16
418.40 311.47 -123.55
422.32 308.26 -122.28
425.19 309.61 -122.81
493.20 314.81 -124.87
494.35 314.87 -124.90
495.63 315.02 -124.96
502.68 315.49 -125.14
503.91 315.60 -125.19
579.05 330.89 -131.25
-1106.26 344.99 -135.70
-1029.90 333.66 -131.24
-1022.76 331.70 -130.47
-1021.61 331.69 -130.47
-1012.33 331.91 -130.55
-1010.55 332.05 -130.61
-1008.18 332.00 -130.59
-997.62 331.44 -130.37
-976.92 326.73 -128.51
-961.56 324.12 -127.49
-952.14 322.76 -126.95
-937.79 320.80 -126.18
-932.66 320.87 -126.21
-911.29 344.75 -135.60
-909.88 344.65 -135.56
-909.33 344.88 -135.65
-908.65 345.06 -135.72
-907.03 344.88 -135.65
-904.23 344.25 -135.40
-899.48 343.31 -135.04
-898.52 343.38 -135.06
-897.35 343.38 -135.06
-895.87 343.24 -135.01
-894.44 343.13 -134.97
-892.80 342.94 -134.89
-891.24 342.78 -134.83
-889.89 342.71 -134.80
-888.53 342.62 -134.76
-886.63 342.33 -134.65
-884.46 341.93 -134.49
-882.52 341.62 -134.37
-881.45 341.65 -134.38
-881.62 342.15 -134.58
-881.77 342.66 -134.78
-879.83 342.35 -134.66
-798.73 360.87 -141.94
-798.23 361.19 -142.07
-798.75 361.97 -142.38
-799.31 362.77 -142.69
-798.28 362.85 -142.72
-795.66 362.21 -142.47
-794.01 362.01 -142.39
-792.34 361.80 -142.31
-790.15 361.35 -142.13
-789.33 361.53 -142.20
-789.87 362.33 -142.51
-790.42 363.13 -142.83
-790.53 363.74 -143.07
-772.93 367.48 -144.54
-770.78 367.04 -144.37
-768.26 366.42 -144.12
-766.36 366.09 -144.00
-761.46 366.68 -144.23
-760.46 366.78 -144.27
-757.06 366.91 -144.32
-755.97 366.98 -144.34
-754.83 367.02 -144.36
-750.71 367.40 -144.51
260.71 319.24 -125.57
277.24 324.89 -127.79
278.52 325.12 -127.88
302.61 324.22 -127.53
303.74 324.28 -127.55
305.13 324.61 -127.68
308.09 324.30 -127.56
308.40 323.50 -127.24
311.20 323.05 -127.07
313.32 323.01 -127.05
318.93 323.24 -127.14
387.26 312.30 -122.84
386.33 310.72 -122.22
390.63 313.34 -123.25
398.04 318.43 -125.25
456.45 352.92 -138.82
456.17 351.80 -138.38
448.11 338.62 -133.19
445.71 335.96 -132.15
442.28 332.54 -130.80
417.90 306.53 -120.57
419.95 307.28 -120.87
478.93 320.71 -126.15
479.82 320.59 -126.10
480.75 320.50 -126.06
481.64 320.38 -126.02
482.48 320.23 -125.96
497.66 315.64 -124.15
505.17 316.39 -124.45
506.49 316.56 -124.51
581.75 332.43 -130.76
-1112.82 347.03 -135.34
-1032.45 334.49 -130.45
-1022.36 331.93 -129.45
-1012.39 331.93 -129.45
-1010.61 332.07 -129.51
-1008.28 332.04 -129.49
-998.02 331.57 -129.31
-981.46 327.88 -127.87
-961.90 324.24 -126.45
-957.66 323.17 -126.04
-953.52 322.86 -125.92
-952.77 322.97 -125.96
-938.64 321.09 -125.22
-935.04 321.69 -125.46
-884.92 314.17 -122.53
-888.28 315.74 -123.14
-893.27 317.89 -123.98
-897.81 319.88 -124.75
-902.82 322.05 -125.60
-907.64 324.16 -126.42
-910.00 325.39 -126.90
-911.29 326.24 -127.23
-912.86 327.19 -127.60
-915.17 328.41 -128.08
-918.40 329.96 -128.69
-921.93 331.63 -129.34
-924.99 333.13 -129.92
-927.49 334.43 -130.43
-930.32 335.86 -130.98
-933.47 337.40 -131.58
-938.51 339.63 -132.46
-942.71 341.56 -133.21
-945.73 343.07 -133.80
-948.04 344.32 -134.29
-950.21 345.53 -134.76
-952.10 346.64 -135.19
-954.13 347.80 -135.64
-956.37 349.04 -136.13
-957.83 350.00 -136.50
-956.41 349.91 -136.46
-951.90 348.68 -135.99
-947.35 347.44 -135.50
-945.07 347.03 -135.34
-943.92 347.03 -135.34
-943.20 347.19 -135.40
-942.14 347.23 -135.42
-940.25 346.96 -135.31
-938.30 346.66 -135.20
-937.00 346.61 -135.18
-936.40 346.81 -135.26
-936.29 347.20 -135.41
-935.84 347.46 -135.51
-934.60 347.43 -135.50
-932.71 347.16 -135.39
-930.59 346.81 -135.25
-928.98 346.64 -135.19
-927.42 346.48 -135.13
-925.76 346.29 -135.05
-923.38 345.83 -134.88
-920.56 345.21 -134.63
-919.07 345.08 -134.58
-919.25 345.58 -134.78
-919.77 346.21 -135.02
-919.23 346.44 -135.11
-917.60 346.27 -135.04
-914.68 345.60 -134.78
-901.57 343.67 -134.03
-897.60 343.47 -133.95
-896.09 343.33 -133.90
-840.18 339.70 -132.48
-835.38 338.21 -131.90
-835.96 338.90 -132.17
-837.20 344.53 -134.36
-831.97 345.22 -134.63
-837.63 367.92 -143.49
-834.79 367.21 -143.21
-831.02 366.09 -142.77
-828.31 365.43 -142.52
-827.58 365.65 -142.60
-821.79 364.70 -142.23
-817.55 363.36 -141.71
-814.20 362.40 -141.34
-811.90 361.92 -141.15
-810.51 361.84 -141.12
-809.79 362.05 -141.20
-808.99 362.24 -141.27
-808.06 362.36 -141.32
-806.58 362.24 -141.27
-804.45 361.82 -141.11
-801.84 361.19 -140.86
-799.37 360.62 -140.64
-782.25 366.68 -143.00
-783.26 367.73 -143.41
-784.70 368.98 -143.90
-785.12 369.76 -144.21
-782.80 369.24 -144.00
-780.32 368.66 -143.78
-779.09 368.66 -143.78
-777.52 368.49 -143.71
-775.52 368.13 -143.57
-763.06 366.86 -143.07
-761.84 366.86 -143.08
-755.24 367.21 -143.21
-754.17 367.29 -143.24
-751.28 367.67 -143.39
260.77 319.32 -124.53
278.52 325.13 -126.80
305.08 324.56 -126.58
306.72 325.14 -126.81
309.33 323.34 -126.10
311.33 323.18 -126.04
313.48 323.17 -126.04
318.87 323.18 -126.04
350.78 316.97 -123.62
380.80 309.59 -120.74
383.66 311.07 -121.32
387.66 313.47 -122.25
404.45 322.70 -125.85
423.10 336.69 -131.31
434.57 344.89 -134.51
456.05 351.71 -137.17
455.28 350.22 -136.58
454.50 348.72 -136.00
450.61 342.23 -133.47
448.79 339.99 -132.60
432.14 323.29 -126.08
416.03 308.17 -120.19
415.12 306.74 -119.63
415.61 306.35 -119.48
417.13 306.71 -119.62
429.70 311.38 -121.44
432.52 312.67 -121.94
473.73 321.53 -125.40
474.60 321.40 -125.35
475.67 321.40 -125.34
476.69 321.36 -125.33
477.61 321.26 -125.29
478.46 321.12 -125.23
483.35 320.10 -124.84
483.97 319.81 -124.72
484.60 319.52 -124.61
485.27 319.26 -124.51
485.97 319.02 -124.42
486.66 318.77 -124.32
487.31 318.50 -124.22
487.95 318.23 -124.11
488.65 317.99 -124.02
489.32 317.74 -123.92
489.51 317.17 -123.70
489.38 316.41 -123.40
489.56 315.85 -123.18
490.32 315.65 -123.10
491.27 315.59 -123.08
492.21 315.52 -123.05
507.06 316.91 -123.59
507.99 316.84 -123.57
583.92 333.67 -130.13
-1114.20 347.83 -134.49
-1040.40 336.70 -130.19
-1022.74 332.06 -128.40
-1012.95 332.11 -128.42
-1011.80 332.10 -128.41
-1011.37 332.32 -128.50
-1010.76 332.49 -128.56
-1009.37 332.39 -128.53
-999.74 332.14 -128.43
-983.22 328.47 -127.01
-978.83 327.37 -126.58
-958.37 323.41 -125.05
-954.70 322.53 -124.71
-953.36 322.44 -124.68
-953.88 322.98 -124.89
-939.15 321.26 -124.22
-935.51 321.85 -124.45
-880.88 310.17 -119.93
-880.71 310.47 -120.05
-880.72 310.84 -120.19
-881.10 311.34 -120.39
-882.02 312.03 -120.65
-882.85 312.70 -120.91
-883.15 313.17 -121.09
-942.46 346.49 -133.98
-941.73 346.65 -134.04
-901.66 343.71 -132.90
-868.96 343.46 -132.81
-868.14 343.59 -132.85
-867.38 343.74 -132.91
-866.48 343.84 -132.95
-865.45 343.89 -132.97
-864.20 343.85 -132.95
-862.69 343.70 -132.90
-860.74 343.38 -132.77
-858.59 342.98 -132.62
-856.77 342.71 -132.51
-855.31 342.58 -132.47
-854.09 342.55 -132.45
-851.86 342.57 -132.46
-850.84 342.62 -132.48
-849.24 342.44 -132.41
-837.50 339.98 -131.46
-837.01 344.45 -133.19
-831.82 345.15 -133.46
-819.78 344.93 -133.37
-819.17 345.16 -133.46
-812.69 342.91 -132.59
-800.94 338.43 -130.86
-792.69 335.41 -129.69
-790.39 334.91 -129.50
-788.09 334.41 -129.30
-788.10 334.89 -129.49
-791.28 336.71 -130.20
-794.70 338.65 -130.95
-799.84 341.32 -131.98
-802.37 342.89 -132.59
-802.76 343.55 -132.84
-802.98 344.14 -133.07
-803.45 344.83 -133.33
-806.42 346.60 -134.02
-811.44 349.25 -135.05
-817.33 352.30 -136.22
-822.76 355.15 -137.32
-828.20 358.01 -138.43
-832.03 360.19 -139.27
-832.67 360.98 -139.58
-832.60 361.47 -139.77
-832.71 362.05 -139.99
-834.30 363.27 -140.46
-837.56 365.22 -141.22
-841.32 367.39 -142.06
-842.92 368.63 -142.54
-842.17 368.83 -142.62
-840.66 368.71 -142.57
-827.64 366.21 -141.60
-825.48 365.80 -141.44
-796.96 362.25 -140.07
-794.81 361.83 -139.91
-793.39 361.73 -139.87
-791.76 361.53 -139.79
-789.70 361.14 -139.64
-788.93 361.34 -139.72
-789.48 362.15 -140.03
-790.11 362.99 -140.36
-790.31 363.64 -140.61
-789.98 364.04 -140.76
-789.30 364.29 -140.86
-788.16 364.33 -140.87
-786.48 364.11 -140.79
-784.62 363.81 -140.67
-783.17 363.70 -140.63
-782.30 363.86 -140.69
-781.74 364.16 -140.81
-781.39 364.57 -140.97
-781.40 365.14 -141.19
-781.51 365.76 -141.43
-763.64 367.14 -141.96
-754.90 367.65 -142.16
-751.95 368.00 -142.29
260.81 319.35 -123.48
278.46 325.05 -125.69
280.04 325.63 -125.91
306.73 325.16 -125.73
308.13 325.49 -125.85
308.54 324.78 -125.58
313.70 323.40 -125.05
315.87 323.42 -125.05
318.95 323.26 -124.99
353.74 319.64 -123.59
378.99 310.65 -120.12
378.55 309.44 -119.65
379.44 309.33 -119.61
432.53 343.27 -132.73
440.10 348.36 -134.70
455.03 350.02 -135.34
440.88 331.49 -128.18
437.01 327.76 -126.73
424.33 315.88 -122.14
421.38 312.91 -120.99
419.06 310.41 -120.03
426.68 309.94 -119.84
472.17 322.67 -124.77
472.11 321.89 -124.47
472.79 321.63 -124.36
492.21 315.52 -122.00
493.19 315.48 -121.98
494.24 315.47 -121.98
495.45 315.57 -122.02
508.55 317.18 -122.64
585.08 334.33 -129.27
-1114.67 347.97 -133.39
-1039.62 336.45 -128.97
-1022.47 331.97 -127.26
-1001.67 332.78 -127.57
-980.47 327.92 -125.70
-939.12 321.25 -123.15
-934.01 321.33 -123.18
-880.03 309.51 -118.64
-879.66 309.74 -118.73
-940.47 346.18 -132.70
-925.70 345.84 -132.57
-898.76 343.47 -131.66
-897.82 343.55 -131.69
-869.91 343.39 -131.63
-868.26 343.19 -131.56
-867.43 343.31 -131.60
-837.52 340.00 -130.33
-836.84 344.38 -132.01
-831.66 345.09 -132.28
-806.19 362.60 -139.00
-803.61 361.99 -138.76
-800.99 361.35 -138.52
-799.22 361.09 -138.42
-798.48 361.30 -138.50
-798.55 361.88 -138.72
-798.59 362.45 -138.94
-776.55 368.62 -141.30
-775.11 368.52 -141.26
-773.16 368.17 -141.13
-764.35 367.48 -140.87
-762.27 367.65 -140.93
-757.74 367.83 -141.00
-756.50 367.83 -141.00
-754.22 367.91 -141.03
-752.31 368.18 -141.13
-751.20 368.23 -141.16
260.32 341.02 -130.73
256.45 334.51 -128.23
255.27 331.53 -127.08
259.79 319.42 -122.44
280.33 325.97 -124.95
284.50 329.53 -126.32
308.77 325.02 -124.59
309.01 324.13 -124.25
309.73 323.76 -124.11
311.79 323.66 -124.07
317.09 323.57 -124.03
318.05 323.44 -123.98
319.06 323.37 -123.96
355.64 321.37 -123.19
380.29 314.29 -120.48
380.75 313.80 -120.29
380.14 312.44 -119.77
438.99 347.49 -133.20
445.43 351.66 -134.80
450.35 354.61 -135.93
450.52 343.04 -131.50
448.79 340.86 -130.66
446.93 338.58 -129.79
445.22 336.44 -128.97
443.11 334.00 -128.03
440.29 331.04 -126.90
432.21 323.35 -123.95
428.14 319.51 -122.48
426.38 309.72 -118.73
428.76 310.70 -119.10
467.05 322.84 -123.76
468.05 322.79 -123.74
469.29 322.90 -123.78
470.79 323.20 -123.89
472.15 323.39 -123.97
472.18 321.94 -123.41
496.82 315.78 -121.05
498.20 315.99 -121.13
499.51 316.15 -121.19
500.91 316.36 -121.27
502.38 316.62 -121.37
505.08 317.00 -121.51
508.81 317.35 -121.65
509.59 317.17 -121.58
585.11 334.35 -128.17
-1116.42 348.52 -132.44
-1037.19 335.30 -127.41
-1020.69 331.75 -126.07
-1002.68 333.12 -126.58
-981.68 328.32 -124.76
-938.86 321.16 -122.04
-931.32 320.77 -121.89
-880.32 309.25 -117.51
-879.74 309.40 -117.57
-939.56 345.85 -131.42
-938.52 345.89 -131.44
-933.23 346.07 -131.51
-932.98 346.40 -131.63
-931.91 346.43 -131.64
-930.15 346.21 -131.56
-928.08 345.87 -131.43
-926.41 345.68 -131.36
-899.71 343.40 -130.49
-898.83 343.50 -130.53
-868.95 343.01 -130.34
-837.58 340.02 -129.21
-836.61 344.28 -130.83
-831.44 345.00 -131.10
-831.92 361.18 -137.25
-831.49 361.52 -137.38
-832.36 362.42 -137.72
-835.31 364.23 -138.41
-840.04 366.83 -139.39
-843.54 368.89 -140.18
-844.04 369.65 -140.47
-842.57 369.55 -140.43
-840.07 368.99 -140.22
-837.30 368.32 -139.96
-833.50 367.18 -139.53
-830.21 366.27 -139.18
-828.14 365.90 -139.04
-825.89 365.44 -138.87
-822.70 364.57 -138.53
-818.49 363.23 -138.03
-814.15 361.84 -137.50
-811.08 361.02 -137.19
-809.32 360.77 -137.09
-808.57 360.97 -137.17
-808.35 361.41 -137.33
-807.95 361.77 -137.47
-807.27 362.01 -137.56
-806.25 362.09 -137.59
-777.79 368.62 -140.08
-776.21 368.46 -140.01
-771.24 367.84 -139.78
-769.37 367.53 -139.66
-764.74 367.66 -139.71
-762.61 367.82 -139.77
-761.56 367.90 -139.80
-760.39 367.93 -139.81
-759.21 367.95 -139.82
-752.11 368.68 -140.10
262.52 343.92 -130.69
256.46 333.07 -126.57
255.51 330.40 -125.55
253.16 325.96 -123.86
252.89 324.22 -123.20
259.85 319.49 -121.41
285.97 331.24 -125.87
292.96 338.03 -128.45
310.96 323.92 -123.09
314.11 323.83 -123.05
315.21 323.84 -123.06
316.27 323.82 -123.05
317.25 323.72 -123.01
358.09 323.58 -122.96
372.54 310.45 -117.97
375.08 311.70 -118.45
378.18 313.40 -119.09
454.45 356.90 -135.62
456.97 357.94 -136.02
452.84 346.56 -131.69
451.61 344.74 -131.00
425.86 309.34 -117.55
464.09 323.04 -122.75
465.28 323.11 -122.78
466.57 323.26 -122.84
472.29 322.01 -122.37
502.29 316.57 -120.30
503.64 316.76 -120.37
506.35 317.13 -120.51
509.36 317.03 -120.47
510.26 316.93 -120.43
584.91 334.23 -127.01
-1120.58 349.82 -131.76
-1029.61 332.85 -125.37
-1018.79 331.14 -124.73
-1002.96 333.21 -125.51
-982.71 328.67 -123.80
-938.80 321.14 -120.96
-930.71 320.57 -120.75
-884.95 310.15 -116.82
-881.77 309.39 -116.54
-880.56 309.33 -116.51
-879.09 311.00 -117.14
-937.82 345.63 -130.19
-936.00 345.39 -130.10
-934.30 345.19 -130.02
-927.75 345.75 -130.23
-905.41 344.70 -129.84
-902.09 343.87 -129.52
-899.83 343.45 -129.36
-868.15 342.69 -129.08
-837.68 340.06 -128.09
-836.47 344.23 -129.66
-831.13 344.87 -129.90
-830.78 345.20 -130.03
-827.83 345.89 -130.28
-825.43 345.37 -130.09
-823.31 344.96 -129.94
-821.33 344.62 -129.81
-819.71 344.42 -129.73
-819.81 344.94 -129.93
-819.53 345.31 -130.07
-813.51 343.25 -129.29
-803.08 339.33 -127.81
-796.48 337.02 -126.94
-795.23 336.96 -126.92
-793.72 336.80 -126.86
-793.71 337.27 -127.04
-796.12 338.78 -127.61
-799.34 340.63 -128.30
-803.92 343.07 -129.22
-806.23 344.54 -129.78
-806.84 345.30 -130.06
-807.47 346.06 -130.35
-808.56 347.02 -130.71
-811.70 348.87 -131.41
-816.45 351.41 -132.37
-821.61 354.14 -133.39
-826.27 356.66 -134.34
-830.42 358.97 -135.21
-832.79 360.52 -135.79
-833.02 361.14 -136.03
-782.85 368.11 -138.66
-781.50 368.63 -138.85
-779.65 368.34 -138.74
-778.93 368.58 -138.83
-777.89 368.67 -138.87
-770.60 368.12 -138.66
-765.08 367.83 -138.55
-755.45 368.51 -138.81
-754.82 368.80 -138.92
-753.52 369.37 -139.13
-752.57 369.51 -139.18
264.33 346.28 -130.43
253.05 323.04 -121.68
253.14 321.78 -121.20
253.47 320.85 -120.85
259.87 319.52 -120.35
293.67 338.85 -127.63
296.42 340.71 -128.33
311.07 324.03 -122.05
312.09 323.97 -122.03
361.26 326.44 -122.96
370.33 312.08 -117.55
370.54 311.38 -117.29
370.65 310.60 -116.99
370.81 309.87 -116.72
457.31 358.20 -134.92
458.58 358.27 -134.95
459.04 357.69 -134.73
455.41 350.31 -131.95
453.99 348.33 -131.20
422.18 309.67 -116.64
422.60 309.22 -116.47
423.30 308.98 -116.38
424.45 309.07 -116.42
426.01 309.45 -116.56
461.25 322.55 -121.49
462.58 322.73 -121.56
463.76 322.80 -121.59
508.34 317.05 -119.42
509.79 316.64 -119.27
510.60 316.49 -119.21
586.31 334.40 -125.96
-1126.04 351.52 -131.24
-1023.88 331.00 -123.57
-1016.75 330.47 -123.38
-1003.47 333.38 -124.46
-980.26 328.21 -122.53
-938.65 321.09 -119.87
-930.16 320.38 -119.61
-890.03 311.56 -116.32
-885.64 310.39 -115.88
-880.03 309.51 -115.55
-879.33 309.62 -115.59
-878.18 310.31 -115.85
-878.90 310.93 -116.08
-879.64 311.56 -116.32
-879.82 311.99 -116.48
-880.72 312.68 -116.74
-933.73 344.98 -128.79
-932.80 345.06 -128.82
-927.60 345.69 -129.06
-922.44 345.48 -128.98
-908.16 345.31 -128.92
-905.50 344.73 -128.70
-870.60 343.21 -128.13
-867.45 342.41 -127.83
-866.07 342.32 -127.80
-837.82 340.12 -126.98
-836.25 344.13 -128.48
-829.79 345.27 -128.90
-829.23 345.51 -128.99
-828.88 345.85 -129.12
-783.98 364.64 -136.13
-782.76 364.64 -136.13
-781.54 364.64 -136.13
-780.76 364.84 -136.21
-780.63 365.35 -136.40
-781.06 366.12 -136.69
-782.21 367.24 -137.10
-783.29 368.89 -137.72
-774.53 368.82 -137.69
-773.39 368.87 -137.71
-769.26 368.65 -137.63
-767.57 368.43 -137.55
-758.80 368.95 -137.74
-757.40 368.87 -137.71
-756.19 368.87 -137.71
-753.71 370.07 -138.16
-752.46 370.06 -138.16
265.76 348.16 -129.98
254.14 320.34 -119.59
259.94 319.59 -119.32
296.26 340.52 -127.13
298.29 341.56 -127.52
313.29 324.10 -121.00
314.35 324.07 -120.99
316.54 324.10 -121.00
361.86 326.98 -122.07
369.84 314.31 -117.34
370.10 313.64 -117.09
370.45 313.06 -116.87
459.23 357.84 -133.59
458.99 356.73 -133.18
458.56 355.47 -132.71
423.19 310.41 -115.89
425.92 310.14 -115.79
456.41 321.41 -119.99
457.93 321.73 -120.11
459.27 321.92 -120.18
510.20 316.24 -118.06
511.15 316.18 -118.04
586.83 334.69 -124.95
-1130.36 352.87 -130.56
-1017.99 329.45 -121.90
-1014.48 329.73 -122.00
-1003.55 333.41 -123.36
-980.59 328.32 -121.48
-955.00 323.36 -119.64
-938.59 321.07 -118.80
-929.85 320.27 -118.50
-895.06 312.96 -115.80
-890.20 311.62 -115.30
-879.31 309.61 -114.56
-878.63 309.74 -114.60
-878.09 309.91 -114.67
-932.31 344.88 -127.60
-932.11 345.22 -127.73
-927.48 345.64 -127.89
-925.73 345.42 -127.81
-922.40 345.47 -127.82
-909.17 345.25 -127.74
-908.13 345.30 -127.76
-863.38 342.16 -126.60
-862.36 342.21 -126.62
-837.71 340.07 -125.83
-835.53 343.84 -127.22
-804.54 358.10 -132.50
-803.70 358.26 -132.56
-803.43 358.68 -132.71
-803.06 359.04 -132.85
-801.91 359.06 -132.85
-800.27 358.87 -132.78
-798.79 358.74 -132.73
-797.80 358.83 -132.77
-796.81 358.92 -132.80
-796.01 359.10 -132.87
-795.99 359.63 -133.06
-796.93 360.60 -133.42
-797.86 361.57 -133.78
-796.70 363.79 -134.60
-796.09 364.07 -134.70
-795.19 364.21 -134.76
-794.18 364.30 -134.79
-793.10 364.36 -134.81
-791.76 364.31 -134.79
-790.01 364.06 -134.70
-788.32 363.84 -134.62
-787.05 363.81 -134.61
-786.15 363.96 -134.66
-785.46 364.20 -134.75
-784.81 364.46 -134.85
-774.83 368.97 -136.52
-766.50 368.51 -136.35
-761.29 368.96 -136.52
-760.37 369.11 -136.57
-755.30 370.24 -136.99
-753.16 370.41 -137.05
-751.84 370.37 -137.04
266.95 349.72 -129.40
262.84 342.83 -126.85
254.37 320.63 -118.63
261.08 319.69 -118.29
298.62 341.93 -126.51
300.95 343.29 -127.02
316.79 324.36 -120.01
317.75 324.24 -119.97
363.17 328.17 -121.42
370.91 317.02 -117.30
370.67 315.91 -116.89
458.69 355.57 -131.56
457.96 354.09 -131.01
456.81 352.29 -130.35
455.44 350.34 -129.62
422.54 312.99 -115.81
422.28 312.03 -115.45
422.53 311.45 -115.24
424.03 311.02 -115.08
447.75 317.55 -117.49
450.51 318.76 -117.94
453.38 320.03 -118.41
455.73 320.93 -118.75
510.76 315.93 -116.90
511.72 315.88 -116.87
588.67 335.11 -123.99
-1132.36 353.50 -129.62
-1014.79 328.41 -120.42
-1012.24 329.01 -120.64
-1000.57 332.78 -122.02
-980.39 328.26 -120.36
-964.15 325.36 -119.30
-959.50 324.16 -118.86
-956.34 323.45 -118.60
-954.52 323.57 -118.64
-952.27 323.17 -118.50
-938.92 321.18 -117.77
-930.09 320.35 -117.46
-900.49 314.49 -115.31
-895.08 312.96 -114.75
-886.67 310.75 -113.94
-878.20 309.95 -113.65
-878.10 310.28 -113.77
-878.78 310.89 -113.99
-931.58 345.03 -126.51
-931.89 345.57 -126.71
-925.31 345.27 -126.60
-922.05 345.34 -126.62
-909.56 344.97 -126.49
-908.95 345.17 -126.56
-868.23 342.27 -125.50
-865.63 341.70 -125.29
-864.30 341.62 -125.26
-863.24 341.65 -125.27
-859.94 341.70 -125.29
-858.71 341.66 -125.28
-857.26 341.54 -125.23
-855.50 341.29 -125.14
-853.69 341.02 -125.04
-852.08 340.83 -124.97
-850.72 340.74 -124.94
-837.58 339.56 -124.50
-838.88 340.55 -124.87
-835.02 343.63 -126.00
-849.36 371.44 -136.19
-850.22 372.36 -136.53
-848.35 372.08 -136.43
-844.24 370.82 -135.97
-839.47 369.27 -135.40
-833.25 367.07 -134.59
-827.19 364.93 -133.81
-822.20 363.27 -133.20
-817.63 361.78 -132.65
-813.64 360.55 -132.20
-810.07 359.50 -131.82
-806.97 358.65 -131.51
-797.57 362.53 -132.93
-797.13 362.88 -133.06
-796.95 363.35 -133.23
-780.48 365.28 -133.94
-775.57 368.73 -135.20
-773.75 369.62 -135.53
-772.54 369.63 -135.53
-771.18 369.57 -135.51
-769.29 369.26 -135.40
-767.07 368.78 -135.22
-765.38 368.56 -135.14
-764.30 368.63 -135.16
-763.33 368.76 -135.21
-761.38 369.00 -135.30
-752.40 370.64 -135.90
265.35 368.54 -135.13
266.51 368.45 -135.10
267.41 368.00 -134.93
255.31 320.48 -117.51
261.17 319.80 -117.26
301.45 343.86 -126.08
303.94 345.39 -126.64
318.07 324.56 -119.01
318.91 324.32 -118.92
364.28 330.16 -121.06
371.18 318.15 -116.66
370.88 317.00 -116.23
455.62 350.48 -128.51
454.21 348.50 -127.78
453.09 346.75 -127.14
422.77 313.94 -115.11
422.12 312.68 -114.65
423.80 311.61 -114.26
440.77 314.09 -115.17
443.40 315.21 -115.58
446.23 316.47 -116.04
512.42 315.66 -115.74
513.70 315.80 -115.79
590.33 336.05 -123.22
-1134.97 354.31 -128.73
-1012.85 327.78 -119.09
-1010.50 328.44 -119.33
-1012.19 332.96 -120.97
-1011.25 333.01 -121.00
-1009.64 332.85 -120.93
-1000.50 332.76 -120.90
-980.58 328.32 -119.29
-964.54 325.49 -118.26
-952.69 323.31 -117.47
-936.86 320.84 -116.57
-930.06 320.34 -116.39
-907.57 316.23 -114.90
-904.60 315.56 -114.65
-900.75 314.58 -114.30
-878.64 310.84 -112.94
-879.29 311.44 -113.16
-879.41 311.85 -113.30
-880.26 312.52 -113.55
-883.43 314.02 -114.09
-888.36 316.14 -114.86
-931.10 345.28 -125.45
-930.79 345.59 -125.56
-929.91 345.69 -125.60
-923.45 345.00 -125.35
-922.67 345.14 -125.40
-921.44 345.11 -125.39
-916.25 344.89 -125.31
-916.05 345.25 -125.44
-915.57 345.50 -125.53
-910.21 344.78 -125.27
-909.21 344.83 -125.29
-848.96 340.49 -123.71
-847.96 340.55 -123.73
-847.02 340.62 -123.76
-845.99 340.67 -123.78
-843.53 340.13 -123.58
-838.48 338.55 -123.01
-833.94 337.17 -122.51
-835.09 338.09 -122.84
-804.54 339.47 -123.34
-797.41 336.93 -122.42
-796.78 337.14 -122.49
-800.88 339.36 -123.30
-803.26 340.85 -123.84
-805.28 342.18 -124.33
-808.49 344.04 -125.00
-812.64 346.30 -125.82
-817.57 348.89 -126.76
-820.62 350.69 -127.42
-822.02 351.79 -127.82
-830.98 358.18 -130.14
-833.47 359.77 -130.72
-835.92 361.35 -131.29
-839.33 363.87 -132.21
-840.02 364.70 -132.51
-840.50 365.44 -132.78
-841.07 366.21 -133.06
-842.18 367.23 -133.43
-844.81 368.91 -134.04
-797.20 360.72 -131.06
-798.06 361.66 -131.40
-798.52 362.42 -131.68
-777.23 368.35 -133.84
-776.41 368.55 -133.91
-776.00 368.94 -134.05
-775.76 369.41 -134.22
-775.28 369.77 -134.35
-762.36 368.88 -134.03
-759.45 369.26 -134.16
-758.12 369.21 -134.15
-756.88 369.21 -134.15
-756.27 370.72 -134.69
-752.94 370.90 -134.76
265.62 368.92 -134.04
267.65 368.33 -133.83
268.33 367.58 -133.55
254.25 323.20 -117.43
255.56 320.78 -116.55
261.18 319.82 -116.20
304.42 345.93 -125.69
307.54 348.16 -126.50
319.16 324.57 -117.93
366.06 331.77 -120.54
370.47 318.45 -115.70
370.56 317.62 -115.40
452.67 346.43 -125.87
451.32 344.52 -125.18
449.92 342.58 -124.47
425.38 317.44 -115.34
423.15 315.00 -114.45
422.15 313.48 -113.90
514.62 315.72 -114.71
591.27 337.23 -122.53
592.42 337.24 -122.53
-1135.15 354.37 -127.57
-1011.43 327.33 -117.84
-1009.09 327.98 -118.07
-1011.62 332.04 -119.54
-1012.00 332.53 -119.71
-1012.30 332.99 -119.88
-1009.74 332.88 -119.84
-1000.98 332.92 -119.85
-981.32 328.57 -118.28
-965.34 325.76 -117.27
-949.68 322.66 -116.16
-936.42 320.69 -115.45
-929.45 320.13 -115.25
-917.09 318.80 -114.77
-912.40 317.54 -114.31
-891.26 311.99 -112.32
-887.83 311.15 -112.02
-884.84 310.47 -111.77
-892.64 318.04 -114.50
-898.08 320.36 -115.33
-903.37 322.63 -116.15
-906.30 324.07 -116.66
-908.14 325.11 -117.04
-911.45 326.69 -117.61
-929.11 345.39 -124.34
-927.90 345.37 -124.33
-913.31 345.08 -124.23
-911.29 344.75 -124.11
-909.81 344.63 -124.07
-904.99 344.54 -124.03
-837.78 340.10 -122.44
-837.66 340.51 -122.58
-837.08 340.74 -122.67
-835.96 340.74 -122.67
-834.91 340.78 -122.68
-833.78 340.78 -122.68
-830.86 341.45 -122.92
-830.14 341.62 -122.98
-829.05 341.64 -122.99
-826.32 341.45 -122.92
-814.62 339.90 -122.36
-813.00 339.69 -122.29
-810.86 339.27 -122.14
-808.67 338.83 -121.98
-807.32 338.74 -121.95
-805.81 338.58 -121.89
-804.09 338.33 -121.80
-804.07 338.80 -121.97
-823.28 352.83 -127.02
-824.29 353.77 -127.36
-826.18 355.09 -127.83
-828.43 356.57 -128.37
-830.60 358.02 -128.89
-835.07 360.98 -129.95
-837.02 362.35 -130.45
-796.19 358.65 -129.11
-796.36 359.26 -129.33
-797.08 360.12 -129.64
-781.75 364.17 -131.10
-780.34 364.08 -131.07
-778.81 363.93 -131.01
-777.14 363.72 -130.94
-777.37 365.54 -131.59
-778.24 366.52 -131.95
-778.05 367.00 -132.12
-777.14 367.15 -132.17
-776.96 367.65 -132.35
-773.09 369.90 -133.16
-771.90 369.92 -133.17
-766.03 368.88 -132.80
-756.22 369.49 -133.02
-756.29 370.12 -133.24
-756.05 371.22 -133.64
-753.41 371.14 -133.61
-752.12 371.11 -133.60
266.07 369.54 -133.03
268.66 368.03 -132.49
269.12 366.98 -132.11
265.85 346.76 -124.83
254.95 322.72 -116.18
255.93 321.25 -115.65
260.24 319.97 -115.19
261.22 319.86 -115.15
308.45 349.19 -125.71
311.11 350.88 -126.32
320.04 325.46 -117.17
367.33 332.92 -119.85
369.28 318.34 -114.60
370.07 318.11 -114.52
448.36 341.39 -122.90
446.83 339.36 -122.17
445.20 337.27 -121.42
432.60 324.45 -116.80
427.99 320.20 -115.27
514.30 315.52 -113.59
515.25 315.46 -113.57
515.69 315.08 -113.43
593.94 338.10 -121.72
-1130.67 353.33 -126.02
-1010.30 326.96 -116.61
-1007.61 327.50 -116.81
-1011.59 332.03 -118.43
-1009.97 332.96 -118.75
-1001.77 333.18 -118.83
-982.43 328.94 -117.32
-966.38 326.11 -116.31
-949.45 322.58 -115.05
-936.23 320.63 -114.36
-928.92 319.95 -114.12
-923.56 320.31 -114.24
-920.96 319.78 -114.05
-917.33 318.89 -113.74
-880.64 309.36 -110.34
-878.67 309.03 -110.22
-877.36 308.93 -110.18
-876.29 308.91 -110.18
-875.36 308.95 -110.19
-874.99 309.18 -110.28
-919.84 330.09 -117.73
-924.81 332.27 -118.51
-926.98 333.45 -118.93
-927.88 334.17 -119.19
-928.66 334.85 -119.43
-929.46 335.55 -119.68
-931.39 336.65 -120.07
-935.78 338.64 -120.78
-938.33 339.97 -121.26
-938.57 340.47 -121.44
-938.69 340.93 -121.60
-939.55 341.66 -121.86
-940.54 342.43 -122.13
-941.63 343.24 -122.42
-943.28 344.26 -122.79
-944.86 345.26 -123.14
-944.54 345.56 -123.25
-941.52 344.88 -123.01
-938.23 344.09 -122.73
-936.30 343.81 -122.62
-934.92 343.72 -122.59
-933.88 343.76 -122.61
-932.63 343.72 -122.59
-930.81 343.47 -122.51
-929.42 343.38 -122.47
-928.78 343.57 -122.54
-928.66 343.95 -122.67
-928.95 344.48 -122.86
-927.11 345.08 -123.08
-925.27 344.82 -122.99
-913.97 344.90 -123.01
-912.71 344.85 -123.00
-908.39 344.52 -122.88
-907.71 344.70 -122.94
-906.82 344.80 -122.98
-867.14 341.39 -121.76
-863.09 340.25 -121.35
-861.20 339.95 -121.25
-859.94 339.90 -121.23
-858.81 339.90 -121.23
-857.66 339.89 -121.23
-856.41 339.85 -121.21
-855.02 339.74 -121.17
-853.56 339.61 -121.13
-852.10 339.48 -121.08
-850.69 339.37 -121.04
-849.34 339.28 -121.01
-847.89 339.16 -120.97
-846.58 339.09 -120.94
-845.61 339.15 -120.96
-844.64 339.21 -120.99
-843.64 339.26 -121.00
-842.41 339.23 -120.99
-839.34 338.44 -120.71
-833.92 336.71 -120.09
-830.47 335.77 -119.76
-832.46 337.03 -120.21
-835.53 338.73 -120.81
-830.66 339.97 -121.26
-830.08 340.20 -121.34
-829.48 340.42 -121.42
-825.29 340.56 -121.47
-822.12 340.19 -121.33
-820.36 339.93 -121.24
-818.86 339.78 -121.19
-817.71 339.77 -121.18
-816.50 339.74 -121.17
-814.34 339.31 -121.02
-811.70 338.68 -120.80
-837.11 362.91 -129.44
-837.69 363.69 -129.71
-838.00 364.35 -129.95
-838.32 365.01 -130.19
-839.34 365.99 -130.54
-842.52 367.91 -131.22
-803.60 358.22 -127.76
-803.04 358.50 -127.87
-802.33 358.71 -127.94
-800.82 358.58 -127.89
-798.84 358.22 -127.77
-797.13 357.99 -127.68
-796.15 358.09 -127.72
-798.69 361.95 -129.09
-799.16 362.70 -129.36
-799.02 363.19 -129.54
-774.40 363.00 -129.47
-774.84 368.39 -131.39
-774.78 368.94 -131.59
-774.55 369.42 -131.76
-773.84 369.67 -131.85
-772.77 369.75 -131.88
-768.50 369.47 -131.78
-752.52 371.31 -132.43
-751.26 371.30 -132.43
266.57 370.23 -132.05
269.53 367.54 -131.09
266.66 347.82 -124.05
264.00 342.86 -122.29
263.61 340.88 -121.58
260.57 335.50 -119.66
258.69 331.66 -118.29
256.94 328.00 -116.99
255.31 324.54 -115.75
256.03 322.73 -115.11
259.30 320.13 -114.18
260.28 320.02 -114.14
311.68 351.52 -125.38
313.20 351.91 -125.52
321.42 326.87 -116.58
368.35 333.86 -119.08
369.21 318.29 -113.52
442.91 335.54 -119.68
441.10 333.33 -118.89
515.52 314.98 -112.34
515.30 314.21 -112.07
515.63 313.77 -111.91
594.82 338.61 -120.77
-1126.67 352.08 -124.40
-1009.72 326.77 -115.46
-1006.55 327.16 -115.59
-1012.13 332.57 -117.51
-1008.74 332.92 -117.63
-1002.67 333.48 -117.83
-983.66 329.35 -116.37
-967.58 326.52 -115.37
-953.42 323.56 -114.32
-936.75 320.80 -113.35
-929.04 319.99 -113.06
-924.54 320.28 -113.17
-923.23 320.20 -113.14
-907.39 316.17 -111.71
-874.19 309.26 -109.27
-875.78 310.19 -109.60
-876.78 310.92 -109.86
-878.91 312.04 -110.25
-926.96 344.17 -121.61
-923.92 344.32 -121.66
-913.75 344.38 -121.68
-904.35 344.30 -121.65
-901.48 343.64 -121.42
-899.02 343.14 -121.24
-897.71 343.07 -121.22
-896.95 343.22 -121.27
-895.93 343.27 -121.29
-894.30 343.08 -121.22
-892.05 342.66 -121.07
-889.67 342.18 -120.90
-887.89 341.93 -120.82
-887.23 342.12 -120.88
-886.96 342.46 -121.00
-886.13 342.58 -121.04
-884.30 342.31 -120.95
-882.17 341.92 -120.81
-880.52 341.73 -120.74
-879.58 341.80 -120.77
-879.04 342.04 -120.85
-877.78 341.99 -120.84
-873.48 340.76 -120.40
-868.23 339.15 -119.83
-866.00 338.72 -119.68
-865.40 338.93 -119.76
-867.99 340.39 -120.27
-872.04 342.42 -120.99
-870.73 342.36 -120.97
-797.26 337.35 -119.20
-802.71 340.13 -120.18
-805.56 341.82 -120.78
-807.52 343.14 -121.24
-810.32 344.82 -121.84
-814.20 346.96 -122.59
-818.85 349.44 -123.47
-821.84 351.21 -124.10
-823.40 352.38 -124.51
-796.63 359.92 -127.17
-797.72 360.96 -127.54
-790.28 364.19 -128.68
-788.82 364.07 -128.64
-787.68 364.11 -128.65
-786.83 364.27 -128.71
-786.05 364.48 -128.78
-785.09 364.59 -128.82
-783.85 364.58 -128.82
-782.34 364.44 -128.77
-774.34 363.54 -128.45
-775.12 364.47 -128.78
-776.06 365.49 -129.14
-776.51 366.28 -129.42
-776.36 366.79 -129.60
-776.52 367.44 -129.83
-776.28 367.90 -129.99
-775.47 368.10 -130.06
-772.06 369.99 -130.73
-771.04 370.10 -130.77
-751.58 371.46 -131.25
-750.33 371.45 -131.25
266.75 370.48 -130.90
270.11 368.33 -130.14
259.43 320.29 -113.17
313.00 351.68 -124.26
315.13 352.76 -124.64
323.48 328.96 -116.23
369.09 334.52 -118.20
368.51 318.59 -112.57
436.95 329.36 -116.37
433.77 326.14 -115.24
516.10 314.06 -110.97
522.55 317.34 -112.13
595.57 339.03 -119.79
-1121.37 350.43 -122.65
-1009.61 326.73 -114.36
-1006.11 327.01 -114.45
-1012.49 332.69 -116.44
-1009.29 333.10 -116.58
-1003.21 333.66 -116.78
-993.31 331.47 -116.01
-984.81 329.74 -115.41
-968.96 326.98 -114.44
-955.04 324.11 -113.44
-937.85 321.18 -112.41
-927.67 319.89 -111.96
-924.71 319.97 -111.99
-924.25 320.18 -112.06
-911.29 317.15 -111.00
-882.76 313.41 -109.69
-888.43 315.79 -110.53
-895.16 318.56 -111.50
-899.77 320.58 -112.20
-904.53 322.66 -112.93
-909.40 324.79 -113.67
-925.28 343.55 -120.24
-924.80 343.79 -120.33
-924.00 343.92 -120.37
-922.51 343.79 -120.33
-914.74 343.46 -120.21
-913.78 343.53 -120.23
-913.44 343.83 -120.34
-912.68 344.41 -120.54
-911.70 344.47 -120.56
-910.08 344.29 -120.50
-908.62 344.17 -120.46
-841.97 338.60 -118.51
-840.70 338.54 -118.49
-837.29 337.62 -118.17
-832.07 335.96 -117.59
-810.68 344.97 -120.74
-825.09 354.11 -123.94
-826.44 355.20 -124.32
-835.59 362.77 -126.97
-835.76 363.37 -127.18
-835.76 363.90 -127.37
-836.54 364.77 -127.67
-840.36 366.97 -128.44
-842.79 368.57 -129.00
-842.76 369.09 -129.18
-841.45 369.06 -129.17
-838.32 368.22 -128.88
-834.73 367.18 -128.51
-829.86 365.58 -127.95
-824.79 363.88 -127.36
-820.58 362.55 -126.89
-816.27 361.18 -126.41
-812.51 360.05 -126.02
-809.55 359.27 -125.74
-807.08 358.70 -125.55
-805.55 358.55 -125.49
-804.74 358.72 -125.55
-804.13 358.99 -125.65
-803.32 359.16 -125.71
-801.84 359.03 -125.66
-799.96 358.73 -125.55
-798.25 358.50 -125.47
-797.30 358.61 -125.51
-796.79 358.92 -125.62
-775.57 363.55 -127.24
-775.22 363.96 -127.38
-750.67 371.62 -130.07
-749.37 371.59 -130.06
207.92 316.64 -110.82
266.81 370.57 -129.70
270.68 369.12 -129.19
315.32 352.97 -123.54
317.90 354.53 -124.09
326.25 331.78 -116.12
369.46 334.86 -117.20
368.44 318.54 -111.49
433.00 325.57 -113.95
429.52 322.14 -112.75
426.94 319.41 -111.79
523.90 318.16 -111.35
596.58 339.61 -118.86
-1118.28 349.46 -121.15
-1009.97 326.85 -113.31
-1010.95 328.94 -114.03
-1013.09 332.89 -115.40
-1009.74 333.25 -115.53
-1003.27 333.68 -115.68
-993.65 331.59 -114.95
-992.30 331.50 -114.92
-985.82 330.07 -114.43
-970.36 327.46 -113.52
-953.15 323.83 -112.26
-936.84 321.20 -111.35
-932.56 320.84 -111.22
-930.66 320.55 -111.12
-928.25 320.09 -110.96
-926.62 319.89 -110.90
-925.62 319.92 -110.90
-919.31 319.21 -110.66
-915.68 318.31 -110.35
-880.18 310.29 -107.57
-911.70 326.00 -113.01
-914.40 327.35 -113.48
-919.28 329.49 -114.22
-926.95 332.64 -115.31
-932.86 335.16 -116.19
-935.08 336.36 -116.61
-914.03 343.19 -118.97
-853.32 338.62 -117.39
-851.90 338.50 -117.35
-850.30 338.32 -117.28
-848.83 338.18 -117.24
-847.57 338.13 -117.22
-846.37 338.10 -117.21
-844.88 337.95 -117.16
-843.39 337.81 -117.11
-842.38 337.85 -117.12
-841.53 337.96 -117.16
-826.58 355.78 -123.34
-827.92 356.86 -123.71
-829.11 357.89 -124.07
-830.46 358.99 -124.45
-831.68 360.04 -124.81
-832.41 360.87 -125.10
-798.89 360.40 -124.94
-799.69 361.31 -125.25
-800.54 362.23 -125.57
-800.92 362.96 -125.82
-800.88 363.49 -126.01
-800.19 363.72 -126.09
-799.03 363.75 -126.10
-762.78 369.09 -127.95
-762.04 369.33 -128.03
-761.60 369.71 -128.17
-760.60 369.82 -128.20
-759.11 369.70 -128.16
-757.66 369.59 -128.13
-756.52 369.63 -128.14
-756.54 370.25 -128.35
-757.49 371.32 -128.72
-757.41 371.89 -128.92
-756.29 371.95 -128.94
-754.98 371.91 -128.93
-749.82 371.81 -128.89
-748.45 371.75 -128.87
207.96 316.70 -109.79
210.12 316.77 -109.81
266.87 370.66 -128.49
271.63 368.73 -127.83
317.95 354.59 -122.92
320.49 356.10 -123.45
329.01 334.59 -115.99
329.02 323.63 -112.19
329.24 322.78 -111.90
369.59 334.98 -116.13
367.60 318.73 -110.49
427.80 320.05 -110.95
427.77 319.23 -110.67
428.24 318.79 -110.51
526.50 319.73 -110.84
541.51 328.19 -113.77
597.65 340.22 -117.94
598.82 340.24 -117.95
599.73 340.11 -117.91
-1117.95 349.36 -119.95
-1010.27 326.95 -112.25
-1009.24 326.97 -112.26
-1011.00 328.96 -112.94
-1013.48 333.02 -114.34
-1010.02 333.34 -114.45
-1000.00 332.96 -114.32
-986.59 330.33 -113.41
-967.52 326.86 -112.22
-954.90 324.43 -111.39
-938.20 321.67 -110.44
-933.74 321.24 -110.29
-922.64 319.99 -109.86
-883.21 311.36 -106.90
-881.75 311.21 -106.85
-881.21 311.38 -106.91
-882.51 312.21 -107.19
-884.71 313.36 -107.59
-886.06 314.20 -107.88
-887.63 315.14 -108.20
-890.23 316.43 -108.64
-894.77 318.42 -109.33
-935.00 340.82 -117.02
-867.91 340.80 -117.01
-865.59 340.34 -116.85
-860.99 338.97 -116.38
-858.34 338.37 -116.17
-856.84 338.23 -116.12
-855.58 338.17 -116.11
-854.36 338.14 -116.09
-853.20 338.12 -116.09
-792.87 335.01 -115.02
-797.30 337.36 -115.83
-802.88 340.21 -116.80
-804.87 341.53 -117.26
-806.26 342.60 -117.63
-808.55 344.06 -118.13
-811.97 346.01 -118.80
-816.29 348.35 -119.60
-818.90 349.96 -120.15
-820.17 351.00 -120.51
-797.31 363.51 -124.81
-796.61 363.75 -124.89
-795.86 363.96 -124.96
-764.33 369.24 -126.77
-762.96 369.17 -126.75
-755.52 372.18 -127.78
-748.91 371.97 -127.71
206.92 316.72 -108.74
210.18 316.86 -108.79
266.89 370.69 -127.27
271.80 368.96 -126.68
320.80 356.45 -122.38
321.83 356.27 -122.32
331.18 336.79 -115.63
329.92 323.45 -111.05
332.16 324.58 -111.44
371.65 334.82 -114.95
372.10 334.22 -114.75
370.68 331.95 -113.97
368.08 328.64 -112.83
366.39 326.17 -111.98
366.54 325.34 -111.70
366.08 323.97 -111.23
367.69 318.81 -109.46
430.67 320.60 -110.07
431.07 320.10 -109.90
431.77 319.83 -109.81
548.37 332.35 -114.11
564.56 341.46 -117.24
577.75 348.74 -119.73
587.80 354.09 -121.57
600.78 340.71 -116.98
-1120.28 350.09 -119.03
-1009.17 326.94 -111.16
-1007.51 326.76 -111.10
-1005.59 326.84 -111.13
-1013.32 332.96 -113.21
-1010.21 333.40 -113.36
-1000.26 333.05 -113.24
-996.21 332.07 -112.90
-990.31 331.21 -112.61
-986.97 330.46 -112.36
-968.58 327.22 -111.26
-956.46 324.96 -110.49
-939.67 322.17 -109.54
-937.84 321.91 -109.45
-936.45 321.80 -109.41
-927.83 320.31 -108.91
-926.52 320.22 -108.88
-925.62 320.28 -108.90
-913.32 317.86 -108.07
-910.62 317.29 -107.88
-908.49 316.91 -107.75
-905.63 316.29 -107.54
-902.35 315.51 -107.27
-899.49 314.87 -107.06
-900.72 320.92 -109.11
-904.54 322.67 -109.71
-907.70 324.18 -110.22
-910.16 325.45 -110.65
-913.05 326.87 -111.13
-919.36 329.52 -112.04
-928.95 333.35 -113.34
-935.93 336.26 -114.33
-938.39 337.55 -114.77
-937.14 337.50 -114.75
-934.79 341.17 -116.00
-936.31 342.14 -116.33
-935.68 342.32 -116.39
-932.17 341.45 -116.09
-929.26 340.81 -115.87
-927.87 340.71 -115.84
-926.81 340.74 -115.85
-925.87 340.81 -115.88
-911.56 343.55 -116.81
-911.33 343.90 -116.93
-910.79 344.13 -117.00
-909.58 344.10 -117.00
-908.10 343.98 -116.95
-906.93 343.97 -116.95
-906.11 344.09 -116.99
-886.46 342.70 -116.52
-884.97 342.57 -116.47
-882.95 342.23 -116.36
-880.78 341.83 -116.22
-879.08 341.61 -116.15
-878.53 341.84 -116.23
-878.23 342.17 -116.34
-876.33 341.87 -116.24
-873.01 341.02 -115.95
-869.40 340.05 -115.62
